ply
format ascii 1.0
element vertex 1198
property float x
property float y
property float z
property uchar red
property uchar green
property uchar blue
end_header
1.006100 -3.218994 20.928974 180 93 187
4.000398 -1.313242 15.999698 180 72 187
2.922924 -2.228126 15.297955 180 85 187
-4.214694 -0.356178 10.656094 180 71 187
3.112337 3.683859 14.426502 180 57 187
-2.454728 3.727346 2.135064 180 66 187
-3.897584 -1.680393 8.081600 180 71 187
-4.081932 0.697402 11.414844 180 74 187
0.117885 -3.912491 6.150763 180 79 187
3.005521 -3.058657 29.957825 180 70 187
-2.739599 -3.178301 13.274703 180 72 187
-4.024565 -0.228596 32.879569 180 76 187
-2.312378 3.538888 14.375548 180 72 187
4.464652 0.315152 13.969627 180 65 187
3.351578 1.776364 19.727610 180 82 187
-1.660711 4.023393 36.259191 180 68 187
3.057034 -3.250332 34.106084 180 66 187
-2.919448 2.284357 37.336475 180 85 187
2.950668 1.752968 6.519286 180 92 187
-2.189685 2.799169 42.175627 180 88 187
1.641667 4.263221 8.741429 180 63 187
0.216262 -4.033667 8.548292 180 76 187
-0.739489 -3.723538 22.065080 180 82 187
-2.913510 -2.502821 28.982520 180 81 187
-2.995983 -3.682541 28.925832 180 58 187
-1.733779 3.940037 24.892476 180 70 187
3.979166 0.655015 14.738252 180 76 187
2.714141 -4.107865 20.099028 180 54 187
3.106557 2.459197 44.296681 180 78 187
-1.609330 3.453734 12.561546 180 82 187
-3.467946 -1.759291 3.691799 180 80 187
-3.520431 -1.538667 20.429375 180 81 187
3.982841 -0.399790 31.779376 180 77 187
4.006240 1.696269 18.740241 180 68 187
-3.000361 -1.961869 23.882126 180 88 187
-0.644809 -3.888354 34.634248 180 79 187
1.882529 4.116488 20.741019 180 64 187
3.729617 -0.964371 25.309754 180 81 187
-2.538820 2.810071 29.603732 180 83 187
0.606805 -3.953373 18.979180 180 77 187
3.488913 -1.716897 17.090298 180 80 187
1.857956 -3.648492 20.872284 180 75 187
1.562860 3.940003 3.654644 180 71 187
-0.906779 -3.665370 11.143997 180 83 187
-0.464442 3.884404 25.065236 180 79 187
3.633989 -0.298457 44.416502 180 86 187
2.411697 3.057349 31.126945 180 80 187
3.196511 2.150145 21.078905 180 81 187
1.938871 3.420119 10.010949 180 79 187
3.500595 1.305204 12.191330 180 84 187
-0.704714 -3.406504 43.858268 180 90 187
0.918264 -4.531572 13.293721 180 62 187
2.542463 2.273908 1.988978 180 92 187
-3.931038 -0.728725 15.305915 180 77 187
-3.187468 1.884731 45.421768 180 85 187
-0.529334 3.342206 22.166661 180 93 187
0.883386 4.435195 27.292979 180 64 187
-3.771770 -1.803860 45.275107 180 73 187
-3.455095 0.276466 24.299706 180 91 187
-3.951120 1.262503 10.327311 180 74 187
3.718278 1.820368 23.434424 180 74 187
0.518017 -3.759493 17.886847 180 82 187
3.588390 -0.393989 33.187782 180 87 187
-2.890842 3.731359 31.574626 180 59 187
-1.962086 3.368176 35.231529 180 80 187
-3.713098 1.084138 34.522858 180 81 187
-3.250067 2.832411 22.871960 180 69 187
-3.465838 1.950793 10.375061 180 78 187
-1.098266 -4.559282 0.093880 180 60 187
-4.018263 -2.459700 29.103454 180 59 187
2.666150 2.836804 32.196943 180 80 187
-1.211392 -3.387495 44.620104 180 87 187
-3.647714 1.627688 4.273059 180 77 187
2.784285 -3.016860 10.877446 180 75 187
3.219993 -1.448695 3.465824 180 89 187
1.554008 2.671774 33.543486 180 100 187
0.455216 3.698373 37.314713 180 84 187
4.550757 1.139624 15.662084 180 60 187
2.155401 3.288411 40.526468 180 79 187
2.541221 -3.671793 18.018807 180 66 187
-0.827026 4.646658 31.680478 180 59 187
0.584090 4.054266 3.693791 180 75 187
-3.563429 1.772737 43.421129 180 78 187
-4.054983 0.879023 45.203539 180 74 187
-0.868611 -4.921320 36.190166 180 52 187
-2.374816 -2.270850 4.981897 180 95 187
-3.918378 -2.237751 1.967524 180 64 187
3.834933 1.637675 1.244642 180 73 187
2.591635 3.494490 35.733925 180 68 187
-4.461482 1.198143 29.263850 180 62 187
4.174277 -0.366107 32.731331 180 72 187
-0.106873 4.351954 22.805265 180 68 187
0.925972 -4.131709 45.218269 180 71 187
1.366048 3.721505 38.458876 180 78 187
3.774410 3.046107 25.853090 180 56 187
0.261334 -3.889394 42.465159 180 80 187
3.627194 0.672757 33.180418 180 85 187
1.089796 3.941088 37.766147 180 75 187
0.106852 -4.190324 31.529294 180 72 187
-3.567313 1.858221 16.773095 180 77 187
-2.103979 -3.161548 24.472284 180 82 187
4.505580 -0.818749 24.820903 180 63 187
-4.164062 -0.915467 8.096895 180 71 187
4.226174 -0.467821 5.839839 180 71 187
-4.685730 1.704956 18.764222 180 52 187
4.475470 0.642761 34.994562 180 64 187
-0.759206 -3.105732 39.985206 180 97 187
-2.315149 2.911032 37.472141 180 84 187
-3.538216 3.093735 4.517586 180 60 187
1.025069 4.209274 32.053879 180 69 187
-2.150057 3.179832 30.403229 180 81 187
0.229098 -3.756989 25.116848 180 83 187
-0.917904 3.750653 28.504911 180 81 187
-2.620175 3.418397 45.208722 180 70 187
-0.986635 4.002895 31.953841 180 74 187
3.575913 1.966348 24.852805 180 75 187
-4.012053 -0.029539 43.401642 180 77 187
-3.181628 -3.009106 35.051316 180 68 187
-2.472728 -3.412646 19.567260 180 72 187
2.244597 -2.692888 20.650418 180 90 187
-2.184423 -3.162756 45.275069 180 81 187
-1.089644 -3.309551 26.932820 180 90 187
-0.719561 3.687100 36.524232 180 83 187
-3.624093 -2.342575 24.829093 180 69 187
-3.828603 -0.730828 28.995086 180 80 187
-3.658126 2.468291 23.393392 180 67 187
-0.025008 -3.939218 23.088676 180 79 187
1.166692 4.206603 8.685200 180 68 187
1.247651 -3.845282 26.155630 180 76 187
2.245337 -3.662204 26.202637 180 70 187
-2.412163 1.942177 33.928277 180 100 187
-0.994448 3.965840 32.131647 180 75 187
2.552867 2.270334 36.683006 180 92 187
2.199729 3.071506 10.698402 180 83 187
3.731384 -0.319535 41.038049 180 84 187
-4.169786 1.354807 4.990274 180 68 187
4.139494 -0.272455 34.557403 180 74 187
0.589033 3.466715 30.535456 180 89 187
3.672451 2.229613 36.487590 180 70 187
4.500216 0.953484 36.291353 180 62 187
3.955053 -0.466315 31.033214 180 78 187
0.471083 -3.555533 2.686117 180 88 187
2.849235 3.123779 12.975005 180 72 187
-0.963254 -4.228439 41.454569 180 69 187
3.025171 -2.008547 21.236071 180 87 187
0.256213 3.523128 19.290755 180 89 187
3.676842 0.496482 27.003700 180 85 187
-0.598251 -3.829499 14.229616 180 80 187
1.282776 3.892759 14.068432 180 75 187
-3.058003 2.593003 8.738216 180 77 187
-2.678268 3.320061 22.479439 180 71 187
3.353212 -2.028127 41.654398 180 79 187
3.534274 -2.838205 21.676579 180 64 187
1.229302 -4.125995 35.254398 180 70 187
1.283880 3.961997 46.453477 180 73 187
0.845470 -3.745020 5.714562 180 81 187
2.216791 -2.551623 38.026707 180 93 187
3.775634 0.071176 14.861655 180 83 187
-2.658109 3.572890 4.712318 180 66 187
3.997422 -1.744987 20.187326 180 68 187
-2.990417 2.051238 0.005917 180 87 187
-0.723597 -3.756034 35.213029 180 82 187
0.566729 -2.710659 14.136926 180 108 187
2.711829 3.792522 12.467302 180 61 187
4.039220 0.541060 20.498286 180 75 187
-1.866655 -3.831897 11.646153 180 71 187
-3.247790 0.305684 9.875630 180 96 187
1.550903 3.446164 9.369734 180 83 187
-3.917245 0.606740 35.987684 180 78 187
-1.762335 4.067922 39.855918 180 66 187
4.206459 0.874362 38.119704 180 70 187
2.825134 -2.668368 38.161414 180 80 187
-2.235765 -3.300543 34.959868 180 78 187
2.641981 -2.895356 12.822275 180 79 187
3.601243 0.876256 45.844340 180 85 187
0.619067 -3.577296 22.751496 180 87 187
1.549639 -4.083663 34.107609 180 68 187
-3.638578 2.622007 8.208938 180 65 187
4.020221 -0.589525 45.382198 180 76 187
2.878601 3.473761 31.246894 180 64 187
3.451110 -0.676432 2.320811 180 89 187
-2.822280 -2.256334 6.462849 180 87 187
-3.897262 -0.553701 30.709033 180 79 187
1.895383 -3.626545 28.455691 180 75 187
4.183624 0.969094 18.782009 180 70 187
-4.436728 -0.548321 28.889498 180 65 187
3.723915 1.155470 20.535207 180 80 187
-4.330624 -0.896653 34.062266 180 67 187
3.665062 0.138556 43.407127 180 86 187
1.457499 -3.200144 39.471950 180 89 187
-2.125116 3.325908 37.202949 180 79 187
3.890025 -2.093673 25.486977 180 67 187
-1.560104 3.546754 8.983271 180 80 187
4.243566 2.029075 15.532425 180 60 187
-3.380482 1.029410 25.653387 180 89 187
2.765695 2.831404 8.247167 180 78 187
-0.021955 3.601290 29.192410 180 87 187
-1.331775 3.514434 39.109954 180 83 187
-3.783568 1.790530 13.806238 180 73 187
3.587389 2.443643 14.749576 180 69 187
2.214620 -2.761183 38.834616 180 89 187
1.563961 4.307912 10.660083 180 63 187
-3.455963 -0.989373 38.040908 180 87 187
3.406918 2.655432 7.031079 180 69 187
-0.301930 -3.853758 15.909186 180 81 187
-2.151553 4.035317 19.984314 180 63 187
2.355719 2.826678 38.569282 180 85 187
2.303927 2.602565 42.619889 180 90 187
-3.041340 -2.216571 9.117179 180 83 187
-2.424677 -4.532281 41.847522 180 49 187
-2.317896 -2.779012 25.277609 180 87 187
-0.739391 4.044713 44.963364 180 74 187
1.492977 3.228472 14.184660 180 88 187
-2.027979 -3.594416 45.040528 180 74 187
3.755812 -1.209006 6.831407 180 79 187
-0.821124 -3.003577 3.355906 180 100 187
-4.175968 0.194483 4.241414 180 73 187
0.308995 -4.288739 4.112625 180 70 187
-1.175049 3.398556 9.177213 180 87 187
-0.532672 -4.103270 41.390724 180 74 187
-2.985242 1.650555 21.124772 180 92 187
3.016492 -2.631719 21.512470 180 77 187
2.235410 3.009956 26.504682 180 84 187
3.237782 1.337726 24.370314 180 90 187
3.617720 0.047246 33.137476 180 87 187
4.110340 0.666456 12.459158 180 73 187
-3.108613 2.618862 19.231046 180 76 187
4.687220 -0.794473 29.245528 180 58 187
3.812032 -1.468265 22.477421 180 75 187
2.676757 2.426955 28.506874 180 87 187
0.893910 3.727591 14.693217 180 81 187
2.126872 -2.924372 16.071086 180 87 187
-2.308025 -2.675740 42.145416 180 89 187
0.131279 -4.263373 16.261141 180 71 187
-0.590515 4.076722 31.893031 180 74 187
-1.475575 -3.350983 23.293967 180 86 187
3.116449 -3.292865 15.806868 180 64 187
-2.483501 -3.301402 31.495304 180 74 187
4.091414 -0.476691 39.450344 180 74 187
-0.778414 4.451274 35.337891 180 64 187
-4.447149 -0.405222 18.513396 180 66 187
-1.380184 -3.336134 0.309644 180 87 187
3.070405 -2.901706 38.891961 180 72 187
4.096250 1.701324 6.087942 180 66 187
-2.815002 -3.008557 11.664952 180 74 187
2.850028 1.228485 10.771764 180 100 187
-0.318451 -4.031104 21.981986 180 76 187
0.592780 3.823431 37.005836 180 81 187
3.345216 0.653617 12.316442 180 92 187
3.143732 3.188119 1.798128 180 65 187
4.223081 1.035136 14.525711 180 68 187
-1.013527 3.361811 32.939999 180 90 187
-3.981241 1.754558 20.327567 180 68 187
3.844923 -2.422233 45.702342 180 64 187
-1.045373 -3.667031 4.872920 180 82 187
3.612995 -1.100648 10.015929 180 83 187
-3.980363 2.340330 30.189100 180 62 187
-3.621402 -0.065924 45.840620 180 87 187
-3.668415 0.717686 45.363176 180 84 187
0.717317 -3.897391 0.981163 180 78 187
-0.719105 4.689001 12.195507 180 59 187
3.546048 2.388350 15.266155 180 70 187
1.959974 -4.206056 29.100942 180 61 187
3.295760 -1.798828 0.296536 180 83 187
0.691348 3.951503 43.786091 180 77 187
3.810195 1.273665 20.265032 180 77 187
0.865520 3.954350 31.164380 180 76 187
-3.109911 3.599091 46.345666 180 58 187
2.070566 3.576126 8.790354 180 74 187
1.495751 3.586665 30.405980 180 80 187
0.973409 3.364757 23.139833 180 90 187
-2.662724 -2.648251 25.076013 180 83 187
3.596725 -1.395535 7.637884 180 81 187
-1.674092 -4.145988 32.634165 180 65 187
-3.233151 -2.165278 22.638770 180 80 187
-3.107987 -2.927499 39.184595 180 70 187
0.467091 3.798121 9.179744 180 82 187
-2.263570 3.382279 28.770432 180 76 187
3.250857 -1.910578 13.264549 180 83 187
-3.948653 0.247161 21.992938 180 78 187
-3.172252 1.549578 45.869452 180 89 187
-4.386134 -1.130203 0.292171 180 64 187
-0.399795 -3.974364 38.771822 180 77 187
-2.411648 2.479509 32.456048 180 91 187
1.498359 3.049243 35.679326 180 92 187
2.694080 2.418066 33.064562 180 87 187
-3.340020 -1.313344 32.520198 180 88 187
0.927909 4.101222 36.469304 180 72 187
2.075752 -3.543444 21.870485 180 75 187
-4.299190 -0.065687 7.569576 180 70 187
1.939429 3.382751 42.216525 180 80 187
3.461830 -1.753517 31.845763 180 80 187
2.343764 3.391967 31.337123 180 74 187
-4.038464 1.420894 14.742010 180 70 187
-0.932421 -3.700377 13.563554 180 82 187
1.947402 -3.523239 31.520056 180 77 187
-3.355014 2.516286 40.937489 180 72 187
0.894503 -4.697094 21.941856 180 58 187
0.835799 -3.984584 21.313460 180 75 187
-2.693346 -2.810156 10.794990 180 80 187
1.610367 -3.434745 8.220203 180 82 187
-3.905366 1.730400 46.651890 180 70 187
2.715254 1.787165 2.517230 180 96 187
2.909332 2.821926 42.356030 180 76 187
2.849319 -3.842240 12.572270 180 58 187
-5.011675 -0.258052 5.120979 180 52 187
0.700835 3.953371 18.091151 180 77 187
-2.929928 -0.019312 40.634509 180 104 187
-0.731621 -3.231850 12.112749 180 95 187
-1.301266 -3.663807 7.013985 180 80 187
3.073767 3.072474 6.301827 180 69 187
2.228668 3.512005 37.562876 180 73 187
2.959608 -0.528462 43.135766 180 102 187
-0.348795 -4.032383 14.836513 180 76 187
-3.438597 0.916116 31.811151 180 88 187
-2.435425 1.830995 18.673960 180 101 187
3.700787 1.610932 12.651124 180 76 187
1.148855 3.557549 34.851423 180 84 187
0.790929 -4.129865 17.516201 180 72 187
-3.078415 -1.399511 34.677105 180 93 187
4.311946 -0.042590 6.666237 180 69 187
3.773209 0.346735 14.861024 180 83 187
-1.216047 -4.469100 5.289754 180 61 187
-4.042212 1.442931 26.761790 180 70 187
2.274892 -3.540873 5.811941 180 72 187
3.379745 -0.296217 23.830397 180 93 187
2.672606 2.924700 5.107416 180 78 187
1.641522 -4.045309 11.947374 180 68 187
3.414693 -1.157029 17.628739 180 87 187
-1.800150 2.861164 5.920084 180 93 187
-4.062811 -0.342671 1.992043 180 75 187
3.895830 0.213249 27.930927 180 80 187
0.937550 -4.129745 16.116377 180 71 187
2.027077 3.845839 0.930711 180 69 187
4.015365 1.032557 30.143394 180 74 187
3.109391 -2.916252 20.422483 180 71 187
2.468643 -4.003464 8.280791 180 60 187
3.968468 -1.179116 24.814220 180 74 187
3.566025 -2.025687 4.553100 180 75 187
-1.805574 3.356216 25.686316 180 82 187
0.676136 -4.113225 2.175055 180 73 187
0.856711 -4.108181 22.491019 180 72 187
-2.655431 2.059867 39.091848 180 93 187
-1.480829 3.669068 11.603672 180 78 187
-3.577467 2.652224 37.840975 180 66 187
-0.860532 -3.847286 46.116081 180 79 187
-3.483650 -2.880559 30.171893 180 64 187
4.077582 0.404839 35.930831 180 75 187
4.337245 -1.464667 32.016410 180 63 187
3.120212 2.520992 42.498946 180 77 187
-3.397915 -2.907966 11.649607 180 65 187
-3.812790 -0.953536 15.751107 180 79 187
2.170798 -2.852244 44.247714 180 88 187
-3.714389 0.861474 42.215838 180 82 187
0.104417 3.317239 30.126026 180 94 187
0.166310 3.205537 33.971712 180 97 187
-1.698661 3.232678 35.908230 180 86 187
-1.660769 3.967021 10.278701 180 70 187
0.693572 4.471850 36.136278 180 64 187
-1.958738 -3.599757 40.927266 180 75 187
-3.632279 1.706023 24.545359 180 77 187
2.403924 -2.578893 8.607815 180 89 187
2.579137 3.506433 36.348286 180 68 187
3.422542 -1.464600 5.038523 180 84 187
-0.784267 -3.498619 34.061340 180 88 187
-3.741564 -0.604368 11.058218 180 83 187
-2.060186 -3.499272 20.896561 180 76 187
-4.009107 -0.538065 42.849562 180 76 187
3.996598 1.185105 41.459985 180 73 187
-4.027954 0.210671 32.698322 180 76 187
-3.419373 0.989843 28.808046 180 88 187
3.123961 2.652048 21.191371 180 75 187
-1.925761 3.849549 35.819638 180 70 187
-4.366405 -0.799886 9.329052 180 66 187
0.207078 -4.110594 16.404742 180 74 187
3.723326 -1.649171 11.284108 180 75 187
-3.312518 0.893801 31.420175 180 92 187
4.225649 -1.217513 8.237760 180 67 187
-3.813397 -1.361215 40.129670 180 76 187
3.447355 -1.984363 15.775300 180 78 187
2.909861 -2.621878 41.523359 180 79 187
-2.720093 -2.899047 21.743018 180 78 187
0.045794 3.878525 46.081309 180 80 187
-2.841588 3.571344 46.080815 180 63 187
-2.545313 3.217929 10.807866 180 75 187
-4.201394 -0.640605 39.282217 180 71 187
3.900391 -2.174547 16.602551 180 66 187
1.518650 -3.704674 8.603326 180 77 187
3.882385 0.911595 30.578306 180 78 187
-3.100503 -1.812455 23.129416 180 88 187
-3.262983 -2.582460 10.740203 180 73 187
3.810770 -1.893560 20.728877 180 71 187
-3.077559 -1.867244 46.693384 180 87 187
2.974876 3.655666 6.682682 180 59 187
-5.011701 0.689775 27.688377 180 51 187
-0.023175 -3.534335 16.257779 180 89 187
2.872421 -2.504574 39.223009 180 82 187
3.400014 2.339712 32.527485 180 74 187
-2.274420 -3.886601 29.224371 180 65 187
2.495145 -2.708581 22.909593 180 85 187
2.091719 2.489635 25.340056 180 96 187
0.264215 -3.940906 15.077006 180 79 187
-3.826604 1.024416 45.308600 180 78 187
3.660525 1.460725 6.824988 180 79 187
-3.826033 2.309975 30.190277 180 65 187
0.316512 -3.389349 8.445869 180 92 187
3.443121 -1.957514 22.439885 180 78 187
-3.112542 -3.065477 41.400386 180 68 187
-3.729976 0.424529 8.812950 180 83 187
-4.715688 -1.400440 18.763668 180 54 187
1.820765 3.704486 3.797070 180 74 187
2.771815 -2.404179 39.740210 180 86 187
-2.495710 -3.318669 30.096287 180 73 187
-1.296627 3.485403 5.842116 180 84 187
-4.323437 2.138094 18.044573 180 57 187
-3.401948 1.044973 29.720973 180 88 187
2.865288 3.495800 1.477402 180 64 187
2.718615 -2.307588 16.700445 180 88 187
3.634262 1.927962 0.307681 180 74 187
-1.706362 -3.811285 42.243073 180 73 187
-3.713379 1.086628 19.369369 180 81 187
0.827522 3.771197 11.028381 180 81 187
3.744144 -2.082917 35.094800 180 70 187
-4.009443 -2.191951 41.764141 180 63 187
2.023653 4.255501 27.246941 180 59 187
-3.682160 1.767437 15.285433 180 75 187
-3.469690 2.017694 40.853017 180 77 187
-4.094355 -1.804471 15.535754 180 65 187
-4.560960 0.017984 10.557838 180 63 187
4.027783 2.607645 9.102042 180 57 187
1.191564 -3.783768 27.900583 180 78 187
-0.987565 2.859939 35.115276 180 102 187
-2.987570 0.748249 33.649566 180 100 187
-3.495132 -0.976228 6.548920 180 87 187
-3.562722 2.115822 2.540901 180 74 187
1.069484 4.176837 19.550857 180 69 187
-3.552675 -2.127720 13.805252 180 74 187
-3.324350 2.510094 8.620173 180 73 187
-1.911121 -2.770747 37.133252 180 93 187
2.998698 1.683843 0.457577 180 91 187
4.079824 -2.155509 20.507528 180 62 187
1.700185 2.542745 7.247542 180 101 187
-2.659031 -3.787149 28.825646 180 61 187
1.226510 -3.384102 33.436890 180 87 187
-1.045603 -3.680036 15.954521 180 82 187
4.344731 -1.867348 17.064709 180 59 187
3.517007 2.023620 30.600631 180 76 187
0.138518 4.187898 36.453013 180 72 187
-1.957604 -3.742746 42.622529 180 72 187
0.948703 3.895725 14.973407 180 77 187
0.155466 -3.683907 20.577756 180 85 187
3.607982 1.420771 16.580098 180 80 187
-4.035912 -0.828073 31.398141 180 74 187
-4.114704 -0.426590 34.177221 180 74 187
-1.294729 -4.437516 36.747058 180 62 187
1.110615 -4.770934 2.798656 180 55 187
-2.073084 -4.179900 26.329204 180 60 187
2.680718 2.794347 4.967797 180 80 187
-4.290334 -1.719443 26.838712 180 62 187
-3.753904 0.129787 42.286714 180 83 187
-4.097163 0.528159 44.275807 180 74 187
-0.181869 3.809900 9.008156 180 82 187
0.084189 -3.839696 8.507043 180 81 187
-1.554580 3.928726 34.236006 180 72 187
1.020798 -4.425151 3.769219 180 64 187
-1.371557 4.243783 29.665134 180 66 187
3.387942 1.768323 0.477196 180 82 187
4.170177 0.383755 42.116242 180 73 187
0.568595 -4.033297 2.116375 180 75 187
-3.863828 0.793184 18.994280 180 79 187
-2.880896 2.518799 21.736081 180 82 187
-0.329723 3.995999 42.778333 180 77 187
0.841424 -4.822641 39.013778 180 55 187
1.430832 -3.906820 21.395504 180 73 187
0.742217 -3.442927 0.339143 180 89 187
-1.689092 -3.092082 39.337769 180 89 187
2.000344 3.540461 37.628176 180 76 187
3.063865 -2.787701 38.040284 180 74 187
-1.000087 -3.778401 26.993178 180 80 187
4.374134 1.233666 7.460172 180 64 187
-3.696703 1.743517 33.646813 180 75 187
-0.479659 -4.360758 46.673867 180 68 187
2.456535 -3.915898 24.039710 180 62 187
3.110417 -3.204950 34.112024 180 66 187
-2.076116 -3.240647 30.775249 180 81 187
-4.204644 1.204407 42.280384 180 68 187
-3.699426 0.134090 29.444528 180 85 187
-1.613531 3.590191 36.871860 180 79 187
-4.446012 -1.259281 31.503312 180 62 187
-3.552791 -1.714268 25.238183 180 79 187
-0.402892 -4.306948 14.489881 180 69 187
-1.213072 3.858463 15.417456 180 76 187
3.334843 3.553227 19.528781 180 55 187
3.475831 -2.304320 24.378348 180 73 187
3.048829 -2.523831 23.328284 180 78 187
-2.345502 3.440955 9.459176 180 73 187
4.570192 1.136888 41.457425 180 59 187
0.890894 3.653379 42.374300 180 83 187
2.651294 3.209456 19.979115 180 73 187
0.528687 -4.578990 41.509526 180 62 187
-3.893553 0.937492 15.363186 180 77 187
3.511003 1.207100 45.266052 180 84 187
0.725336 4.445498 29.356817 180 65 187
-2.003029 -3.554214 34.612263 180 75 187
-2.212561 -3.332728 6.374039 180 77 187
-1.559431 -3.487413 35.985398 180 82 187
3.425167 1.987944 26.193417 180 78 187
-1.522618 -3.636491 0.799288 180 79 187
-3.463488 1.165948 2.263211 180 86 187
-0.985175 3.950938 1.131083 180 75 187
4.160356 -0.687949 35.027398 180 72 187
-3.229912 -3.328857 1.726482 180 61 187
-1.942211 -2.483149 32.744771 180 99 187
3.730921 1.204155 8.365507 180 79 187
-2.471071 3.709262 34.520741 180 66 187
-1.510554 3.446594 45.030357 180 83 187
3.671694 1.755619 27.598198 180 76 187
4.190169 0.450093 36.077914 180 72 187
-2.282043 3.730390 0.444606 180 68 187
0.379876 -3.782016 18.557862 180 82 187
4.464042 -0.951800 3.629005 180 63 187
-1.263987 4.105348 19.788208 180 70 187
-1.581664 3.112238 13.633085 180 90 187
2.481684 2.952525 11.358957 180 81 187
-3.856825 -0.317125 42.240097 180 81 187
4.784516 -1.326459 27.819189 180 53 187
-0.611752 -3.837495 23.712371 180 80 187
-3.481925 2.713479 0.062906 180 67 187
-1.667395 -3.638652 25.027300 180 77 187
-1.256979 3.984517 13.056407 180 73 187
0.367393 3.769646 28.920737 180 83 187
-4.238727 0.346739 39.847851 180 71 187
-0.670571 -4.148624 27.420395 180 72 187
-2.457346 -3.684900 24.058177 180 66 187
-2.995286 -2.191707 9.447530 180 85 187
-1.097678 -3.813778 45.875471 180 78 187
-3.301006 2.394311 45.916085 180 75 187
0.921094 4.218754 3.661698 180 69 187
-1.182821 -3.943807 11.468470 180 74 187
1.696322 3.251671 7.076889 180 86 187
2.269358 -3.240716 24.370865 180 78 187
-4.040648 0.253276 37.857814 180 76 187
3.662285 0.841018 31.903575 180 83 187
3.725065 1.080668 43.852118 180 80 187
3.315967 1.918121 35.546602 180 82 187
1.266047 -3.772627 26.853393 180 78 187
4.716386 -0.805385 37.413373 180 57 187
-0.322192 -3.858844 37.925640 180 80 187
-2.233771 3.067081 17.385454 180 82 187
3.526092 -0.903070 36.887420 180 86 187
4.439386 -2.290636 7.136663 180 52 187
-2.415568 3.607231 36.623014 180 69 187
-0.572113 -3.361542 38.447523 180 92 187
-3.034501 2.660290 24.642255 180 76 187
3.273441 -2.426315 46.416865 180 75 187
-0.124773 -3.599814 41.783530 180 87 187
-2.206851 -3.700518 1.355728 180 69 187
-2.792188 -2.857550 0.488119 180 77 187
3.605879 1.803510 24.590255 180 76 187
3.409537 1.504536 3.030609 180 84 187
2.459900 -2.527212 1.153730 180 89 187
-4.092688 1.870811 32.094170 180 65 187
1.869820 -3.581380 28.623280 180 76 187
-3.719305 -3.032405 21.043455 180 57 187
3.781314 2.380321 9.547831 180 65 187
3.223081 2.771920 36.590085 180 71 187
-3.412327 2.377182 46.060220 180 73 187
4.141177 -0.309307 30.644256 180 73 187
-4.513257 -0.295395 25.490960 180 64 187
-0.552364 -3.976508 18.299544 180 77 187
-1.056833 -3.179187 16.698281 180 94 187
2.387390 2.890325 27.452587 180 84 187
2.896212 2.530144 3.728892 180 81 187
3.600728 0.996053 42.631989 180 84 187
1.193780 -3.742059 32.438884 180 79 187
4.235500 0.689625 11.263416 180 70 187
1.425003 -3.424643 12.127853 180 85 187
-3.663086 -1.356282 4.273298 180 80 187
-1.081367 -3.210983 13.712970 180 93 187
-3.966766 -0.845827 8.235409 180 76 187
3.463681 -1.387645 14.069583 180 84 187
-3.548725 0.155834 25.461473 180 89 187
-3.299337 -2.304901 12.891560 180 77 187
3.443519 0.884929 15.162619 180 88 187
-2.495891 -4.495662 42.552176 180 48 187
-2.220504 3.852154 9.181430 180 66 187
3.963910 -1.733598 34.454811 180 69 187
-4.029298 -1.040059 27.149328 180 73 187
1.406261 -4.148219 31.828920 180 68 187
-1.874704 -3.747560 38.394898 180 72 187
3.492285 2.411377 27.450765 180 71 187
1.382443 3.995222 20.931621 180 72 187
3.052511 -2.917367 35.576747 180 72 187
-2.635419 -2.230493 39.649643 180 91 187
2.626096 -2.842517 3.886155 180 81 187
-2.917413 3.259732 29.967365 180 68 187
0.400782 -3.714765 1.362581 180 84 187
-1.782397 -3.686113 16.381055 180 75 187
2.683043 -2.515054 43.169910 180 85 187
-4.236393 -2.044132 18.092195 180 60 187
4.152009 -0.379327 18.011309 180 73 187
1.537094 -3.806862 30.384809 180 75 187
-3.111500 -0.901025 17.232539 180 96 187
2.842483 2.436806 2.085212 180 84 187
-3.247583 2.448301 11.971201 180 76 187
0.822894 -2.572341 6.910946 180 110 187
-2.158706 -3.727646 9.522576 180 70 187
1.866154 -3.636968 36.274551 180 75 187
3.605669 1.950599 43.661772 180 75 187
-4.210443 1.306956 20.395736 180 67 187
-3.655333 1.023894 37.470584 180 82 187
3.903933 -0.394297 27.931162 180 79 187
2.146136 3.724516 46.480169 180 70 187
2.207299 3.296705 21.800472 180 78 187
3.018041 2.922386 3.739372 180 72 187
-1.674114 -4.041885 12.971086 180 68 187
-4.452587 -0.126892 32.876408 180 66 187
2.370210 3.348226 18.045772 180 75 187
3.765246 -0.825026 14.916227 180 81 187
-0.342122 -4.593161 25.796201 180 62 187
-1.800571 -3.542432 26.454389 180 78 187
4.416902 -1.045580 39.910525 180 64 187
3.942001 2.124162 27.817889 180 65 187
0.728681 -4.341719 10.270167 180 67 187
1.408558 -4.576136 46.380633 180 57 187
-1.736203 3.826216 31.604500 180 72 187
-2.355329 3.141793 11.035874 180 79 187
-4.392026 0.818739 9.302508 180 65 187
3.257387 -2.900442 10.146330 180 68 187
3.849905 -0.388667 12.557228 180 81 187
3.632974 -3.370328 34.546855 180 53 187
2.941013 -2.970616 8.449095 180 73 187
-0.861837 3.842628 9.637784 180 79 187
3.930381 0.141384 42.425294 180 79 187
2.217918 3.331657 10.748691 180 77 187
-0.017228 -4.050232 19.898390 180 76 187
1.392323 -3.314489 27.972450 180 87 187
-1.157681 -4.099893 14.581462 180 71 187
0.873257 -4.270677 23.183278 180 68 187
1.288412 -3.922446 40.641451 180 74 187
-1.072516 2.988063 28.380412 180 98 187
-0.148829 4.156188 27.777199 180 73 187
2.397371 2.698160 34.030398 180 87 187
3.299943 -0.922180 10.224958 180 92 187
3.025343 3.000326 44.010011 180 71 187
-3.154426 2.844196 18.177714 180 71 187
-2.306315 3.198758 36.694264 180 79 187
-3.215552 -1.998613 11.464727 180 83 187
2.395286 -2.313035 28.689391 180 94 187
-3.923501 0.176665 10.939926 180 79 187
0.677667 -4.147793 42.858252 180 72 187
3.930068 1.302624 0.537212 180 74 187
4.063677 -1.345050 31.267772 180 70 187
3.123291 2.421551 18.248285 180 78 187
3.806046 0.715313 46.714111 180 80 187
-4.274599 2.079022 45.607066 180 58 187
-3.835978 -0.392400 29.217365 180 81 187
-1.268965 -3.159425 43.063574 180 92 187
3.891021 -0.459685 25.562135 180 79 187
0.415911 3.594278 29.256041 180 87 187
2.299685 -3.248720 43.641755 180 78 187
4.433777 -1.255057 4.245610 180 62 187
1.334914 -3.242138 31.907119 180 90 187
-0.691097 4.518327 20.317691 180 63 187
2.969682 -1.587823 43.151733 180 93 187
1.543012 3.778704 4.761011 180 75 187
1.097185 -4.158213 15.280867 180 70 187
-2.211768 3.135779 20.528407 180 81 187
3.866334 -2.496452 0.995164 180 62 187
1.047957 3.968531 44.375831 180 75 187
-3.070003 3.149448 35.651846 180 67 187
-3.011574 -3.885710 32.833581 180 54 187
3.583663 -2.291761 46.355940 180 71 187
-4.173938 -1.061272 17.361865 180 70 187
2.104032 3.786259 17.462218 180 69 187
-3.699817 0.621033 45.598675 180 84 187
-1.898225 -3.667198 22.820939 180 74 187
4.396817 -0.399127 26.949535 180 67 187
-0.460288 3.347334 39.727406 180 93 187
-1.330456 3.899169 33.564426 180 74 187
4.094422 0.572573 39.633026 180 74 187
-2.286012 2.992577 17.981000 180 83 187
-1.337610 -3.403073 36.867687 180 86 187
-2.166240 -2.532974 3.345121 180 94 187
-4.166782 0.489619 11.455893 180 72 187
3.966152 -0.086172 10.281824 180 78 187
-2.279691 4.171900 22.511456 180 58 187
-0.988709 3.277855 3.018184 180 92 187
3.876334 1.531422 16.945762 180 73 187
-4.253073 0.002409 8.802322 180 71 187
-1.820613 -2.988600 3.253677 180 90 187
1.032621 -3.827368 37.661209 180 78 187
4.210977 -1.042922 20.837756 180 69 187
-4.300940 0.274807 7.920755 180 69 187
-4.486814 0.076956 15.085615 180 65 187
-3.123839 -2.615422 25.521900 180 75 187
1.604970 -3.858982 35.321800 180 73 187
2.962486 2.545774 15.996879 180 80 187
-1.166309 3.844710 22.282513 180 77 187
0.594979 2.828931 38.127814 180 105 187
2.424829 3.832058 5.089413 180 64 187
-3.632856 -1.113533 37.655205 180 82 187
0.682281 -3.279936 24.730627 180 94 187
2.386431 -3.858697 3.751595 180 64 187
3.753279 2.288650 8.118278 180 67 187
2.527672 3.582670 40.771565 180 68 187
1.816749 3.998898 0.460306 180 67 187
3.833368 1.189792 19.628780 180 77 187
-2.633474 2.539232 27.416752 180 86 187
-0.496985 -3.697008 25.288297 180 84 187
-0.761706 -4.136375 45.774522 180 72 187
4.074771 0.147205 6.257050 180 75 187
1.071504 3.931880 5.270053 180 75 187
-4.018144 0.297610 41.337883 180 77 187
3.415393 3.167553 45.309287 180 61 187
4.705735 -0.396664 34.783174 180 59 187
-4.158967 1.171479 15.379222 180 69 187
1.867434 2.987223 41.325590 180 89 187
-1.523414 2.952109 39.142368 180 94 187
4.656854 -0.874127 0.853232 180 59 187
3.997054 2.822173 1.839702 180 55 187
-3.034003 -1.734376 42.030637 180 90 187
-2.572250 3.057779 35.291003 180 77 187
3.753352 0.008662 31.184067 180 83 187
3.143413 -2.127387 20.280845 180 82 187
3.782043 0.298547 44.254865 180 82 187
-0.358797 3.805139 5.860306 180 82 187
-3.678977 -2.152561 23.824117 180 71 187
1.908696 -2.873681 25.009576 180 91 187
-2.624818 -2.122405 10.441096 180 93 187
-1.902112 -2.660593 21.503804 180 96 187
4.083014 0.577878 40.998100 180 74 187
4.852694 0.210406 11.835214 180 56 187
2.229149 -3.149426 4.897403 180 81 187
-0.626751 -3.458231 14.454287 180 89 187
3.935847 0.082474 17.218910 180 79 187
3.961413 -1.781200 10.194097 180 69 187
-3.683620 -1.887223 37.772488 180 74 187
-1.198880 4.472460 38.002255 180 61 187
0.324555 4.087302 23.541428 180 75 187
0.821047 -3.432440 37.071895 180 89 187
-0.276674 -4.407689 39.190884 180 67 187
1.169391 -3.576951 33.478639 180 83 187
-0.025153 -4.549894 30.988624 180 63 187
-2.060817 3.865431 1.582645 180 68 187
2.569429 -2.935645 0.450368 180 80 187
-4.233574 0.373069 38.449091 180 71 187
4.127927 -1.560894 8.167963 180 67 187
-3.281836 -1.534959 7.338474 180 87 187
0.530174 4.025334 7.879875 180 76 187
-2.450555 -3.314769 5.923304 180 74 187
-3.467909 1.830635 45.172812 180 79 187
3.267166 2.566820 45.753817 180 73 187
-4.562009 2.797418 20.484179 180 43 187
2.956092 -2.652350 24.222268 180 78 187
-2.711385 -2.525089 26.064081 180 85 187
-1.771888 -3.133003 11.322329 180 87 187
4.936364 -0.155464 20.061539 180 54 187
-2.589813 -3.283424 45.205535 180 73 187
4.322664 1.850511 43.010011 180 60 187
-3.698783 -0.181795 22.212441 180 85 187
-1.957659 -3.033667 13.158724 180 87 187
-0.475565 4.137452 12.699862 180 73 187
-3.978641 -0.733245 27.751075 180 76 187
-1.768634 -3.071822 17.964693 180 89 187
-2.528505 2.786831 28.205861 180 83 187
-3.486245 1.492848 11.692106 180 82 187
2.437758 -3.606365 43.762378 180 68 187
-0.005293 -3.669297 24.533917 180 86 187
2.124618 -3.329598 26.235144 180 79 187
1.333196 -4.049473 35.374727 180 71 187
-4.115600 0.604590 34.872169 180 73 187
2.916040 -2.131975 41.912889 180 87 187
-3.614712 0.787610 16.757302 180 85 187
3.906992 -0.709870 46.125351 180 78 187
4.417795 0.021046 14.499379 180 67 187
4.271983 1.515439 5.142044 180 64 187
1.180828 -4.515376 2.946306 180 60 187
-3.371048 -2.538453 9.490562 180 72 187
0.401216 4.314273 13.785125 180 69 187
1.296618 -3.867329 17.551273 180 75 187
2.591859 2.888650 37.517738 180 80 187
-0.785601 3.461704 46.196158 180 89 187
-0.901258 3.419008 9.139885 180 89 187
1.094223 4.272997 18.423915 180 67 187
3.068124 2.472470 25.940734 180 79 187
1.390637 3.847711 6.340568 180 75 187
3.646474 -1.830964 40.845573 180 75 187
1.464643 -3.998948 7.171129 180 71 187
3.897394 -2.288704 31.430402 180 64 187
2.256034 2.780665 33.673227 180 88 187
4.153143 1.753409 21.410822 180 64 187
4.138160 -0.009698 1.399199 180 74 187
1.816634 3.705714 24.679866 180 74 187
-3.781957 -1.543489 7.969893 180 75 187
3.650333 0.182619 21.856657 180 86 187
-1.331038 3.954218 25.252064 180 73 187
-3.570870 0.179496 0.141559 180 88 187
4.287687 0.310359 11.168449 180 70 187
-1.369766 3.571937 4.717706 180 82 187
-1.564597 -3.751515 23.291188 180 76 187
-2.984124 1.271859 15.346469 180 96 187
-3.797102 2.567112 42.291830 180 63 187
1.609986 -4.156403 22.244205 180 66 187
-1.499394 3.761235 44.558596 180 76 187
3.251512 -3.226087 10.594926 180 63 187
-2.263286 2.121952 36.478239 180 100 187
0.006289 -4.258186 25.463051 180 71 187
4.017957 1.298677 23.676266 180 72 187
2.142524 3.401729 27.581363 180 77 187
3.356095 -0.178551 44.338600 180 93 187
1.319268 3.950663 32.049819 180 73 187
3.911212 0.610559 42.977574 180 78 187
1.307422 4.188402 32.800230 180 67 187
1.690660 -3.933445 41.586566 180 70 187
1.731367 3.780519 6.632864 180 73 187
-0.101206 4.496351 8.126632 180 65 187
0.114600 -4.108950 3.382774 180 74 187
0.445671 -3.850840 20.574354 180 80 187
-3.170763 -2.674090 5.256688 180 74 187
-2.419319 3.305979 44.324442 180 75 187
1.698708 -4.135570 20.055942 180 65 187
2.122457 2.372723 43.805243 180 98 187
-4.218308 0.781793 38.694129 180 70 187
3.013660 2.840139 5.162318 180 74 187
-2.122143 -3.261428 20.536316 180 80 187
2.906468 2.382119 26.056623 180 83 187
1.666536 3.977333 2.285728 180 69 187
4.336694 0.247451 33.872439 180 69 187
3.464672 1.544218 43.108717 180 82 187
3.721076 -0.720256 27.737895 180 83 187
-0.001333 -4.503979 20.368115 180 65 187
-0.559988 4.222600 42.746508 180 71 187
-3.485985 0.625281 18.246502 180 89 187
3.464025 2.127799 21.503422 180 76 187
-2.422140 2.894832 30.232215 180 83 187
-0.040615 4.019814 41.700817 180 77 187
-2.682291 2.865055 10.434250 180 79 187
2.872697 2.290307 28.393989 180 85 187
4.334178 -0.464419 42.359978 180 68 187
4.648320 -1.160456 8.013760 180 57 187
-4.186632 -1.798917 33.227014 180 63 187
-1.198604 4.256252 36.052842 180 67 187
-0.812002 -3.895742 35.186337 180 78 187
3.678038 -1.879678 32.454525 180 74 187
3.638934 3.014674 38.107054 180 59 187
3.743930 1.405774 14.248238 180 77 187
2.869776 1.712168 35.805213 180 94 187
-2.852685 2.471342 9.276223 180 83 187
-4.394893 -0.776016 32.375831 180 66 187
-1.495399 -4.579473 17.736353 180 57 187
2.916725 2.688272 27.136998 180 78 187
0.621946 3.823404 21.723156 180 80 187
1.026498 -3.699331 24.429523 180 81 187
4.261274 -1.872635 13.794172 180 61 187
1.993887 2.814608 45.225674 180 91 187
-1.604162 4.324598 43.218144 180 62 187
-0.269861 -4.168326 18.752266 180 73 187
1.198751 3.604774 44.383021 180 82 187
3.031743 3.337990 40.988407 180 64 187
-3.907243 -0.026135 33.116754 180 80 187
2.560125 -0.819870 18.683469 180 110 187
-3.717554 -2.725785 7.476375 180 62 187
0.235378 -4.233727 32.010757 180 71 187
-3.959796 0.579839 5.489928 180 77 187
-2.732071 2.473042 41.167043 180 85 187
-4.596169 0.744095 15.186146 180 61 187
-1.318586 3.314895 41.793730 180 88 187
2.058431 2.992816 37.398080 180 87 187
1.845481 -4.370232 36.433714 180 59 187
2.662405 -3.848557 30.879728 180 60 187
1.090064 3.517173 22.097598 180 85 187
-3.725980 -1.746886 1.851750 180 74 187
-3.356888 -3.130756 3.261122 180 62 187
1.023743 3.754841 34.988888 180 80 187
4.805502 0.314867 11.413650 180 57 187
3.547384 1.623576 43.409923 180 80 187
-1.263340 -4.282616 16.498969 180 66 187
-3.206421 1.187585 16.418715 180 92 187
4.077963 0.662988 4.462420 180 74 187
2.711812 2.760900 37.203576 180 81 187
-2.974181 0.522006 1.646141 180 102 187
4.013854 -2.548481 32.596456 180 58 187
1.139050 -3.466894 18.873738 180 86 187
4.230676 -0.913671 20.418270 180 69 187
2.833199 -3.576006 27.644276 180 63 187
-0.740500 4.304767 40.010849 180 68 187
3.819089 -1.848525 13.257171 180 71 187
2.613450 -2.672532 2.070349 180 84 187
3.306530 -1.949224 34.316809 180 81 187
4.089416 -1.726398 29.983651 180 66 187
-3.579394 -1.681384 18.138500 180 78 187
-1.927777 -3.702703 27.821945 180 73 187
3.351907 0.805380 14.547036 180 91 187
-3.732875 1.122578 42.963945 180 80 187
-3.710806 -1.946052 29.581808 180 72 187
0.592512 -3.731253 8.968846 180 83 187
-0.612906 -4.177106 38.130868 180 72 187
3.896589 0.580955 21.926120 180 79 187
-4.321789 -1.989498 4.676266 180 58 187
2.103306 -3.655494 2.279279 180 72 187
0.552025 -4.315338 21.884166 180 68 187
0.672214 3.208671 29.959263 180 95 187
-1.020996 -3.481659 29.357283 180 87 187
-1.327262 -3.682833 23.152246 180 79 187
2.328942 3.523512 0.131491 180 72 187
0.269639 -4.168941 26.608842 180 73 187
-3.444885 1.816557 3.548247 180 80 187
-2.804406 -2.701735 14.806276 180 80 187
3.943162 0.646591 19.776477 180 77 187
3.200617 -2.543621 7.383993 180 75 187
-3.647866 -1.130001 6.249430 180 82 187
-0.017798 -4.409326 7.468455 180 67 187
4.193326 -0.647872 15.119355 180 71 187
-0.201802 -4.478892 14.210403 180 65 187
3.479896 -0.375466 10.035295 180 90 187
-2.407475 -2.900821 7.296041 180 83 187
4.096939 1.516832 28.130367 180 68 187
3.345816 -2.046175 6.585146 180 79 187
3.285450 1.892897 43.939131 180 83 187
-3.935276 -1.767691 23.523682 180 69 187
3.256835 3.107906 33.582642 180 65 187
3.524090 2.509796 10.525895 180 69 187
-1.702031 3.712439 10.355763 180 75 187
-0.769839 3.135881 34.051373 180 97 187
3.433986 2.379174 22.313268 180 73 187
3.397120 1.629917 27.669392 180 83 187
-3.768698 1.463369 12.333111 180 76 187
-4.127402 -0.270062 27.575295 180 74 187
2.808113 1.636325 33.088567 180 96 187
2.371919 2.605133 8.728071 180 89 187
-2.960901 -2.435043 0.030356 180 81 187
-4.872704 -1.289948 14.352646 180 51 187
1.784299 4.593082 9.753865 180 54 187
-2.508382 2.246942 8.318451 180 93 187
-4.272956 -1.027375 26.115242 180 67 187
3.532607 0.934228 13.758510 180 86 187
-4.015829 0.355836 38.511298 180 76 187
-3.870145 1.318937 18.465479 180 75 187
-3.822004 1.405906 32.973931 180 75 187
-0.666815 -3.087780 23.247690 180 98 187
2.423158 3.084018 14.256173 180 79 187
0.410875 -3.692355 33.702347 180 84 187
1.423059 -3.914289 17.938508 180 73 187
3.684188 -0.709309 31.466814 180 84 187
3.444798 0.506499 39.659713 180 90 187
-2.745760 -2.860217 3.081458 180 78 187
1.503930 3.562787 27.767582 180 81 187
2.886541 -2.493933 0.606368 180 82 187
-2.349472 2.487671 37.608034 180 92 187
-3.863366 1.859482 26.680478 180 70 187
0.324912 -3.521563 41.036295 180 89 187
-3.280640 -2.698321 6.289859 180 71 187
-4.937401 1.801771 10.698262 180 46 187
-1.098330 4.011320 35.458372 180 73 187
2.571415 -3.064000 35.807372 180 77 187
-3.797307 1.527694 12.222709 180 75 187
3.852374 1.816108 4.954899 180 71 187
3.955776 0.960756 36.704928 180 75 187
1.816114 4.096034 13.554200 180 65 187
-1.297120 3.490164 10.114416 180 84 187
4.046642 -0.043321 38.233845 180 76 187
2.774762 -1.161357 17.653612 180 102 187
1.406088 -3.358544 29.040480 180 86 187
3.478413 1.311496 7.914919 180 84 187
2.863691 2.896065 44.849808 180 75 187
4.404527 -0.375190 30.611856 180 67 187
-4.028028 0.583685 38.943613 180 75 187
-2.961564 -2.295770 10.784542 180 84 187
2.836353 -1.188770 46.169982 180 101 187
-3.794786 1.384899 42.591549 180 76 187
2.634239 -2.693123 28.422629 180 83 187
-0.960509 -3.766991 26.483725 180 80 187
-3.901141 1.107523 23.147401 180 76 187
4.349592 -0.382238 20.346195 180 68 187
0.023507 3.227070 5.511072 180 97 187
4.285755 0.323537 42.099067 180 70 187
1.148374 -4.189295 13.695015 180 69 187
3.456710 3.438473 34.071673 180 55 187
3.725043 -2.275476 30.762881 180 68 187
3.627323 -2.187746 10.895368 180 71 187
-3.827473 -0.190508 38.411910 180 81 187
3.511457 0.831915 25.688391 180 87 187
-3.864503 2.146927 15.906799 180 67 187
3.594488 -1.887109 29.489909 180 76 187
-3.418094 -2.451872 16.416085 180 72 187
1.046175 4.438892 14.093029 180 63 187
-1.737172 3.880901 6.305832 180 71 187
-1.127148 -3.493055 15.595028 180 86 187
0.100223 3.854075 3.639276 180 81 187
-1.641679 2.822633 22.011557 180 96 187
-2.456034 3.558865 22.375957 180 69 187
3.770254 -0.292746 1.576251 180 83 187
0.020080 4.516933 33.952525 180 64 187
-2.623270 3.031236 13.537042 180 77 187
0.852671 -3.782569 45.340877 180 80 187
-3.723811 2.151873 6.069669 180 70 187
3.753555 1.989564 38.549342 180 71 187
-4.065549 -0.475830 31.052498 180 75 187
1.606964 4.174389 6.470404 180 65 187
2.635242 -3.234208 46.326004 180 73 187
3.344915 -1.982108 12.615439 180 80 187
-2.420166 2.095599 45.828866 180 97 187
-3.112254 1.470379 9.869042 180 91 187
-2.169333 -4.478873 15.507370 180 53 187
0.149560 -3.329602 46.248948 180 94 187
3.381546 -1.637750 34.084655 180 83 187
-4.435052 0.736379 35.769926 180 65 187
-3.920993 -0.107880 32.254268 180 79 187
3.030238 -1.895279 43.948261 180 88 187
-3.761252 1.575656 34.762987 180 75 187
2.969787 -2.440359 33.388808 180 81 187
2.888064 -2.662439 38.130870 180 79 187
3.624233 -2.411753 8.705590 180 68 187
-2.693081 -2.800173 22.050869 180 80 187
-3.443541 1.120275 28.837862 180 87 187
-2.344320 -3.336216 24.201841 180 75 187
3.362474 -1.317108 11.505533 180 87 187
-3.896185 1.100870 6.233122 180 76 187
2.972402 -1.644411 30.383184 180 92 187
3.557555 1.078260 17.992007 180 84 187
-4.081673 -2.183292 11.034747 180 61 187
2.324995 -3.555583 22.174503 180 71 187
1.866344 -3.695942 45.645531 180 74 187
-1.527511 -3.333346 3.581983 180 86 187
-4.185957 -0.467889 26.986388 180 72 187
-1.793031 3.809281 2.283249 180 72 187
4.188344 -0.136647 38.559744 180 72 187
-3.930215 0.691242 0.520143 180 77 187
2.200547 -3.608587 34.968597 180 72 187
3.008976 2.600315 21.002311 180 78 187
-1.554620 -4.091810 31.563679 180 68 187
1.887596 -3.531630 26.162370 180 77 187
2.065578 3.995898 43.183873 180 65 187
0.528224 -4.434286 29.382898 180 66 187
-2.960035 -2.666663 16.815082 180 78 187
1.874738 3.828947 42.657729 180 71 187
3.553416 -2.373123 5.398334 180 70 187
-4.089790 -0.527148 22.056696 180 74 187
3.891527 -2.704105 19.227780 180 59 187
2.428539 -2.313959 11.085711 180 94 187
-3.699286 -0.932388 46.693468 180 82 187
1.945426 -4.089064 22.398472 180 64 187
-1.422377 3.966233 21.758442 180 72 187
-0.953862 -4.183612 26.948216 180 70 187
3.197340 2.224615 10.001742 180 80 187
3.702686 1.879534 42.430893 180 73 187
-4.044082 0.914124 23.855120 180 74 187
-1.243352 4.384970 31.012175 180 63 187
0.792124 4.226887 46.701070 180 70 187
3.044951 2.969807 5.338701 180 71 187
3.130221 -2.508691 16.836550 180 77 187
3.982634 2.549175 33.851091 180 59 187
-2.485319 0.255429 49.517349 180 115 187
-2.239894 -2.293378 48.979907 180 97 187
-1.364051 0.570080 52.045760 180 141 187
-0.882413 -0.599678 52.771069 180 151 187
-0.203582 0.095890 54.499846 180 172 187
-1.634096 2.174515 49.918054 180 109 187
0.005849 -2.512542 50.614825 180 115 187
0.728287 1.531232 51.680281 180 135 187
-0.862958 -0.030843 53.241466 180 156 187
-0.114098 0.323514 54.289048 180 169 187
1.178232 -2.059642 50.419892 180 118 187
-0.840050 -3.972962 46.869708 180 76 187
1.612957 3.093912 48.296778 180 90 187
0.022696 -1.933041 50.860110 180 129 187
0.237695 0.007121 54.466704 180 172 187
-2.426042 3.565179 46.903638 180 69 187
0.326969 1.149810 52.375832 180 148 187
0.082623 -1.825018 51.668741 180 132 187
-0.152220 0.275017 54.341311 180 170 187
-1.203332 -2.621349 49.925944 180 105 187
3.257046 1.472087 47.966014 180 88 187
0.080614 0.091986 54.776238 180 175 187
-0.898966 -1.276004 51.618659 180 139 187
-0.244777 0.683427 53.317501 180 160 187
0.072435 -0.150041 54.591283 180 174 187
0.753775 0.461147 52.910342 180 156 187
0.673492 3.119577 48.802143 180 98 187
0.095778 0.228810 54.455254 180 172 187
-0.827103 2.195967 50.595416 180 119 187
-1.627802 1.967801 49.243151 180 114 187
1.512099 3.854241 47.387972 180 74 187
-0.001921 -1.363984 52.136473 180 144 187
-0.063069 -2.823571 49.716307 180 107 187
-0.268236 0.156132 54.404942 180 170 187
2.739113 0.454807 48.716565 180 108 187
-0.894380 -2.329758 48.837124 180 115 187
1.805496 2.241179 48.157364 180 106 187
-3.931854 -0.817335 47.710520 180 77 187
-2.149149 -2.113639 49.114524 180 102 187
2.980703 0.965666 48.403778 180 99 187
0.942786 -2.971496 48.730161 180 99 187
-0.585378 -2.181168 50.927537 180 121 187
0.120123 3.224754 48.147284 180 97 187
-0.172850 -0.354063 54.261520 180 168 187
0.092946 0.682592 53.733909 180 161 187
3.908001 -0.437503 46.793248 180 79 187
0.296572 -2.456863 50.011518 180 116 187
-0.193336 0.022439 54.592495 180 173 187
-1.086588 -1.957740 50.564023 180 122 187
-3.210500 0.012151 47.832023 180 97 187
0.181782 0.150756 54.508641 180 172 187
-1.697931 -1.533657 50.334338 180 120 187
0.480834 0.205850 54.118645 180 165 187
0.779851 1.893201 51.051076 180 126 187
-0.152811 2.353656 49.984114 180 119 187
0.336074 -1.603883 51.319039 180 137 187
-0.400303 2.607981 50.116024 180 112 187
-0.156473 1.644711 51.478297 180 136 187
0.533951 -2.583827 49.864046 180 112 187
3.148641 2.354014 47.197917 180 79 187
-0.235646 -0.414558 54.013440 180 166 187
1.687301 1.396499 50.230305 180 123 187
0.217311 -0.530069 53.736209 180 164 187
-0.048318 -1.280134 52.204305 180 146 187
1.668225 0.321314 51.558114 180 135 187
3.516488 -2.147096 47.615421 180 74 187
0.121656 1.096872 52.838527 180 150 187
1.036396 -0.976201 52.243714 180 142 187
-0.817499 0.173164 53.422260 180 157 187
2.516995 2.210754 48.092223 180 94 187
-0.201897 1.928248 51.313845 180 129 187
-0.357809 3.971292 48.306774 180 78 187
2.476621 -0.866736 50.451064 180 112 187
-0.256829 -1.534088 52.006334 180 139 187
-0.441986 -2.732306 48.035624 180 108 187
-0.372852 -1.668092 52.000089 180 135 187
0.093792 1.808528 50.415009 180 132 187
-0.872783 -1.891121 49.323785 180 126 187
0.546501 0.463180 53.024688 180 160 187
2.678432 -1.384870 48.791565 180 102 187
-2.020239 2.226584 48.940887 180 102 187
-1.093298 -3.690612 48.159608 180 81 187
0.164900 0.319135 54.275873 180 169 187
0.359761 3.195446 48.954711 180 97 187
-0.826036 0.669931 52.616390 180 151 187
-1.918754 2.787577 48.849048 180 93 187
-0.451032 1.230627 52.291413 180 145 187
-2.056381 -1.134658 49.331660 180 119 187
-3.179310 -0.507922 47.913753 180 97 187
1.904513 3.027523 47.252011 180 88 187
0.122631 0.270161 54.422098 180 171 187
0.049085 0.082292 54.820585 180 176 187
-1.368257 -1.976880 49.884033 180 117 187
-3.298333 -1.218152 47.400426 180 89 187
0.542196 -2.265990 50.220882 180 119 187
0.551785 -0.579964 53.169174 180 158 187
1.069743 -1.125026 51.181792 180 139 187
-0.113593 0.507983 53.996432 180 165 187
-0.436602 -2.899718 49.717196 180 104 187
2.531473 -2.675961 48.596472 180 85 187
0.525339 -3.689396 47.925506 180 84 187
-1.617885 3.589017 47.156581 180 79 187
-0.662246 0.332728 53.346129 180 159 187
0.486267 0.081135 54.209347 180 166 187
1.260726 -0.291862 52.191712 180 145 187
-2.633420 2.894511 47.920730 180 79 187
0.398702 -0.499186 53.867485 180 162 187
0.367850 -0.456254 53.880937 180 163 187
-1.262209 -1.277056 51.483686 180 133 187
2.036417 0.372039 50.782457 180 126 187
0.310263 -0.228268 54.150059 180 168 187
-0.601751 0.859523 53.006351 180 152 187
-0.781376 -2.274912 50.707880 180 117 187
0.224186 2.285156 49.796050 180 120 187
0.568846 3.014178 48.132123 180 101 187
-1.914933 -1.814588 49.648257 180 112 187
-1.618509 -0.428235 51.514325 180 136 187
-0.475969 -0.465931 53.603194 180 161 187
0.399911 2.551982 49.505878 180 113 187
-0.458046 0.051794 53.900907 180 166 187
-1.784421 0.535466 49.942114 180 131 187
-0.052079 0.535708 53.861606 180 164 187
2.865265 -0.272735 49.463684 180 106 187
0.882008 0.518588 52.773496 180 152 187
-0.362340 1.022004 52.849758 180 151 187
-0.439522 -0.474925 53.677798 180 162 187
0.468319 0.446904 53.432908 180 162 187
-2.186769 1.936500 48.395468 180 104 187
-1.053284 0.096032 52.314467 180 151 187
-0.168887 -0.163267 54.598372 180 172 187
-0.063323 2.411729 47.335176 180 117 187
-0.224966 0.554711 53.750772 180 163 187
-2.330707 1.468750 49.528591 180 109 187
0.144914 -1.298345 52.659552 180 145 187
-0.948655 0.226444 52.968324 180 153 187
0.641584 -0.784478 52.803341 180 152 187
3.635586 1.459322 47.296104 180 79 187
-0.386435 2.330758 49.205336 180 118 187
0.458903 -0.588691 53.487335 180 159 187
-0.509586 -0.506929 53.499529 180 160 187
-0.265615 -1.462051 51.568873 180 141 187
0.232648 -0.302076 54.190119 180 168 187
0.371686 0.932094 53.186113 180 153 187
1.102135 2.873095 47.800947 180 100 187
0.604609 -1.616944 51.187457 180 135 187
